# .PCD v0.7 - Point Cloud Data file format
VERSION 0.7
FIELDS x y z
SIZE 4 4 4
TYPE F F F
COUNT 1 1 1
WIDTH 1529
HEIGHT 1
VIEWPOINT 0 0 0 1 0 0 0
POINTS 1529
DATA ascii
79.000038 -67.853836 -837.84186
79.676071 -66.609573 -837.76898
80.252457 -66.182724 -838.05078
80.596817 -65.198456 -837.8894
80.925957 -63.928345 -837.85931
81.297867 -63.296001 -838.27325
80.982544 -62.851799 -837.23804
81.71492 -62.187649 -837.98712
82.064674 -60.894508 -837.61737
82.823547 -60.496597 -838.42053
82.503098 -60.165699 -837.73199
82.842842 -59.380409 -837.83124
83.360992 -58.007431 -837.77979
83.685936 -56.9342 -837.8017
84.214882 -56.582203 -838.21179
84.811691 -55.394932 -837.87793
85.197189 -53.93861 -837.85187
85.558899 -53.777405 -837.67236
85.694191 -52.409649 -837.8269
86.081154 -50.997437 -837.97534
86.580376 -49.551037 -837.74371
86.994202 -49.190552 -838.16998
86.701332 -48.108616 -837.99982
87.043999 -48.440022 -838.31335
86.68895 -46.91925 -837.59302
87.009636 -46.902218 -837.96869
87.27092 -45.538269 -837.80377
87.46492 -44.13282 -837.97327
87.715561 -42.901886 -838.10895
87.880066 -41.681667 -837.54004
88.500671 -41.240185 -837.98016
89.008621 -39.789127 -838.07678
89.192062 -38.463375 -837.79926
89.665001 -38.215099 -837.65002
89.412758 -37.120388 -837.84143
89.648399 -36.787701 -838.37097
88.578903 -35.724499 -837.30402
89.694763 -35.737221 -837.77002
89.302002 -34.417252 -837.91602
89.768478 -34.267101 -838.05811
89.23233 -32.644638 -837.9563
90.096748 -32.955849 -838.01953
89.323212 -31.543987 -837.97998
89.334908 -30.362783 -837.78253
89.771004 -30.499599 -837.91498
89.528694 -28.675915 -837.98126
89.706749 -28.91135 -838.54102
89.387268 -27.157452 -837.85626
89.651337 -27.509134 -837.88531
89.496368 -25.937325 -837.82587
89.76313 -25.896866 -838.30695
89.483994 -24.597975 -837.61694
89.798607 -24.518227 -837.9986
89.505867 -22.830133 -837.97736
89.751099 -23.233912 -838.00232
89.44677 -21.699501 -837.84161
89.722496 -21.839621 -837.76416
89.513237 -20.29298 -837.9502
89.676796 -20.410774 -837.74548
89.373924 -18.887159 -837.86475
89.750076 -19.1635 -838.22174
89.511398 -18.060801 -837.98853
89.767555 -17.293116 -838.04346
90.022934 -16.149 -837.83777
89.901962 -14.836972 -837.9726
89.460526 -13.174759 -837.81219
89.694466 -13.350368 -838.073
89.224701 -11.70249 -838.10376
89.138069 -10.428322 -837.90039
89.024712 -9.0516119 -837.89526
88.798004 -7.6789813 -837.92792
88.592911 -6.1815877 -837.82617
88.536507 -5.0155945 -837.85309
88.034729 -3.4927034 -838.47198
88.355721 -3.7653599 -837.62561
87.919678 -2.1603658 -837.71478
87.676292 -0.90921623 -837.89905
86.705704 1.32935 -838.07501
87.23114 0.72543001 -838.01514
86.653671 2.1183586 -837.63153
87.019302 1.622105 -838.40454
86.315811 3.5583203 -837.88507
85.942764 4.8762817 -838.04846
85.284256 6.7210703 -837.75598
85.636414 6.1735802 -837.67523
85.145302 7.6146255 -838.3075
85.401497 7.3024998 -837.21503
85.063698 8.9179296 -837.896
66.439575 -81.692253 -836.11523
68.2174 -80.363869 -836.50293
68.727905 -80.324448 -837.05652
69.428764 -79.065376 -836.3465
70.34565 -78.630554 -836.62598
70.988686 -77.668579 -836.508
71.7444 -77.350899 -837.052
72.099457 -76.252251 -836.2937
73.011703 -75.7668 -837.02295
72.539467 -75.326469 -835.95068
73.502434 -74.812744 -836.66095
73.957893 -73.796761 -836.40332
74.71627 -73.407272 -836.69836
75.027267 -72.351669 -836.15057
75.830238 -71.730583 -836.64539
76.630219 -70.44561 -836.68585
76.854095 -69.509201 -835.84851
77.490936 -69.110031 -836.70703
77.91468 -68.186852 -836.4931
78.756325 -67.43158 -836.79199
79.236694 -66.521881 -836.56799
79.961197 -66.038101 -836.97699
79.379379 -65.137878 -836.11279
80.200241 -64.923294 -836.48566
79.626297 -64.120903 -835.83899
80.377213 -63.472542 -836.44385
80.897285 -62.325676 -836.39984
81.431633 -61.958099 -836.89233
81.511169 -60.877216 -836.34283
82.149223 -59.508934 -836.42804
82.661453 -59.237598 -836.92847
82.379295 -58.289532 -836.23267
82.857567 -57.955704 -836.55939
83.396393 -56.444378 -836.54517
83.647003 -55.4431 -836.078
84.45504 -55.080868 -836.7597
84.862595 -54.100372 -836.32715
85.535004 -53.502998 -836.95898
85.070847 -53.020378 -836.31049
85.494324 -52.267498 -836.74622
85.244469 -51.481602 -836.09637
85.661171 -50.892223 -836.63391
86.175926 -49.697361 -836.49738
86.332771 -48.318737 -836.47809
86.443039 -47.000893 -836.28467
86.521835 -45.668285 -836.23596
86.953102 -45.223499 -837.06799
86.711403 -44.265602 -836.23853
87.13221 -44.310673 -836.53748
87.506157 -42.560726 -836.53125
87.783691 -41.231068 -836.54498
88.775101 -40.858898 -836.979
87.933487 -39.86227 -836.13806
88.45594 -40.063347 -836.83167
88.0662 -38.895599 -836.33765
88.687271 -38.452068 -836.57666
88.041801 -37.485401 -836.12598
88.704208 -37.161079 -836.61444
88.690392 -35.678692 -836.47363
88.723457 -34.361748 -836.57501
88.916351 -32.875042 -836.50031
89.047791 -31.513283 -836.55042
89.125282 -30.014366 -836.51587
89.274757 -28.763979 -836.65485
89.336212 -27.280201 -836.33325
89.393967 -25.8316 -836.41608
89.384415 -24.514147 -836.49237
89.341118 -23.037561 -836.28522
89.366096 -21.783318 -836.50751
89.642197 -21.3575 -836.698
89.389282 -20.277369 -836.46234
89.669464 -20.071035 -836.79071
89.370018 -18.902933 -836.51196
89.7229 -19.121899 -836.73499
89.463402 -18.1436 -837.16699
89.824501 -17.405201 -836.51843
89.937004 -15.997023 -836.53125
89.482201 -14.7008 -836.16602
89.873779 -14.832288 -836.53497
89.385941 -13.417081 -836.47119
89.658051 -13.837549 -836.59094
89.208488 -11.938691 -836.55719
88.979515 -10.7571 -836.22156
88.915916 -9.2547503 -836.54272
88.804092 -7.8514299 -836.36169
88.644249 -6.4596815 -836.49811
88.408173 -4.99892 -836.45117
88.038528 -3.1473727 -836.40955
88.399101 -3.5816541 -836.61737
87.988731 -2.0948989 -836.38654
87.672523 -0.69082075 -836.43256
86.701797 1.27619 -836.422
87.333809 0.54808033 -836.41077
86.641014 2.0239851 -836.31915
86.328873 3.3179457 -836.54828
85.938675 4.943264 -836.52216
85.722908 6.4969058 -836.44531
85.347267 7.6339836 -836.98126
85.550522 7.6094236 -836.39044
85.341644 9.0832996 -836.65002
85.513222 8.991785 -836.13751
85.382301 10.0482 -836.68799
85.551826 10.873067 -836.20734
85.32795 11.83535 -836.08398
85.448402 11.2377 -836.53601
84.900398 13.54375 -835.88696
84.355202 14.90045 -836.42053
83.977699 16.149401 -836.36603
65.679901 -81.721298 -835.65601
65.581001 -81.085602 -834.68799
66.656349 -80.542007 -835.15973
67.584602 -79.905899 -835.37549
67.108902 -79.504501 -834.44598
67.797562 -79.308479 -834.90363
68.816803 -78.919601 -835.43652
69.418091 -77.745605 -834.90686
70.254318 -77.5252 -835.51025
70.904182 -76.514023 -835.1701
71.504753 -75.896049 -835.11646
71.282303 -75.490898 -834.77502
72.152031 -74.946602 -835.10925
72.874397 -74.451202 -835.617
73.518394 -73.397987 -835.08868
74.216904 -73.130898 -835.79102
73.770798 -72.191902 -834.41602
74.515411 -71.928406 -835.05157
75.182297 -70.720276 -834.76202
75.808121 -70.619675 -835.45099
75.5578 -69.890297 -834.41699
76.384041 -69.201286 -835.02643
77.119102 -68.825798 -835.58063
77.602699 -67.717506 -834.94073
78.191505 -66.725899 -834.98126
78.935318 -66.219513 -835.41058
79.073845 -64.898819 -835.24646
79.445541 -63.882912 -834.94873
79.934364 -63.251633 -835.30298
79.742401 -62.791748 -834.72302
80.159813 -62.31591 -834.9986
80.683014 -61.017445 -834.86316
81.247673 -60.538502 -835.1673
81.687927 -59.412327 -835.16913
82.182571 -58.165672 -835.08167
82.805298 -57.591301 -835.77301
82.447922 -56.918324 -834.6955
82.876266 -56.592949 -835.36774
83.414124 -55.278183 -835.08807
83.827637 -54.37743 -834.63995
84.536026 -53.776981 -835.14398
84.878464 -52.446495 -834.94275
85.030472 -51.239433 -834.83447
85.610703 -50.426201 -835.75897
85.65641 -49.636414 -835.23596
86.109436 -48.257252 -835.28485
86.044441 -46.700386 -835.14142
86.245605 -45.556961 -835.04706
86.543159 -44.324215 -835.1402
86.880127 -43.619305 -835.45673
86.667267 -43.034103 -834.69366
86.986313 -42.712643 -835.09955
87.239998 -41.360645 -834.96838
87.579575 -39.738651 -835.09271
87.788948 -38.446373 -835.08203
87.93644 -37.187168 -835.04901
88.373596 -36.768902 -835.61066
87.980835 -35.705357 -834.89215
88.412849 -35.4772 -835.27814
88.0121 -34.483749 -834.67297
88.434952 -34.213413 -835.30396
88.577972 -32.893131 -835.11835
88.713837 -31.409893 -834.96411
88.790039 -30.152224 -835.01154
88.969711 -28.725086 -835.19073
88.963348 -27.480923 -835.0072
89.1082 -26.018078 -835.08484
89.265015 -24.403082 -834.96716
89.247887 -23.049639 -835.14935
89.271301 -21.763433 -835.1438
89.179504 -20.250229 -835.03455
89.370201 -18.949858 -835.13983
89.939323 -17.435837 -835.15515
89.353279 -16.210951 -834.78247
89.886772 -16.464201 -835.1889
89.299545 -14.750069 -834.94922
89.690697 -15.3297 -835.716
89.166199 -13.171933 -835.08051
89.057587 -11.7697 -835.06592
89.022263 -10.366172 -835.23273
88.834152 -9.0490541 -835.0697
88.680084 -7.727808 -835.00287
88.483177 -6.24646 -835.08521
88.172501 -4.2371998 -834.85602
88.396957 -4.8988161 -834.88123
87.99324 -3.4332116 -835.02374
88.315651 -3.569145 -835.08899
87.76297 -2.0617278 -835.11304
87.368317 -0.74839121 -835.13269
86.710648 1.096647 -835.04248
87.046509 0.59294194 -835.49567
86.574013 2.1528921 -835.00415
86.815804 1.96683 -835.25702
86.278709 3.6070189 -835.1217
85.90435 4.9593353 -835.19464
85.697319 6.2772331 -834.92651
85.62719 7.820446 -835.30182
85.700623 9.1248713 -835.03009
85.691063 10.466252 -835.2475
85.181953 12.295601 -835.12
85.513824 11.921976 -834.68927
84.973755 13.273729 -835.20258
84.594604 14.74793 -835.19012
84.206192 15.925299 -835.0246
83.845398 17.615301 -834.61066
84.0812 16.811701 -834.88599
83.313721 18.778999 -835.10284
82.7239 20.490601 -834.6405
82.335999 22.0401 -834.79102
65.3834 -80.802048 -834.19202
66.7826 -79.919502 -834.328
66.852684 -79.066254 -833.81689
67.605202 -78.944099 -834.33197
67.126602 -78.154503 -833.23297
68.084076 -77.903809 -833.68121
68.970665 -77.274162 -833.75702
69.441887 -76.456215 -833.51605
70.506363 -75.95575 -834.04846
70.7994 -74.96006 -833.55884
71.62693 -74.531799 -834.01129
72.125282 -73.50975 -833.6225
73.083351 -73.131454 -834.14246
72.714798 -72.3927 -833.27301
73.487694 -72.142799 -833.76715
73.837677 -71.086349 -833.29779
74.62072 -70.445992 -833.71033
75.272354 -69.430466 -833.46283
75.860397 -68.961266 -833.93164
76.458778 -68.059258 -833.61798
77.197899 -67.725838 -834.07129
77.536583 -66.52047 -833.71472
77.936234 -65.118752 -833.65887
78.730904 -64.6036 -834.38098
78.128899 -64.018097 -833.18048
78.940628 -63.48563 -833.8327
79.187012 -62.682468 -833.46942
79.913094 -61.979736 -833.92163
79.731903 -61.4506 -833.21002
80.180305 -61.021118 -833.80402
80.793549 -59.555092 -833.74902
81.489998 -59.127602 -834.06049
80.912849 -58.461502 -833.26648
81.72583 -58.074409 -833.80188
82.006577 -56.822918 -833.58203
82.203049 -55.505302 -833.38
82.883018 -55.1385 -833.54718
83.478004 -54.015373 -833.75397
84.153 -53.323799 -833.77698
83.938004 -52.704399 -833.07599
84.431557 -52.432423 -833.72638
84.660965 -51.124664 -833.8645
85.075325 -49.759125 -833.80786
85.616394 -49.459103 -834.21564
85.209137 -48.393402 -833.33698
85.74382 -48.370476 -833.8075
85.2239 -47.018848 -833.81219
85.688148 -47.00568 -833.65094
85.359901 -45.888401 -833.48499
85.915703 -45.325504 -833.76215
86.150459 -44.02383 -833.76929
86.432045 -42.682289 -833.56702
86.561089 -41.509914 -833.47327
86.921555 -41.190899 -834.14221
86.701195 -40.083633 -833.21631
87.116768 -39.871971 -833.82159
87.401695 -38.359161 -833.84363
87.522575 -37.022484 -833.62091
87.638481 -35.907616 -833.55359
87.83445 -34.38245 -833.58264
88.023293 -33.198799 -833.45703
88.3517 -32.838779 -833.9408
87.9104 -31.18865 -833.245
88.347145 -31.523237 -833.73157
88.187851 -30.124401 -833.8125
88.510284 -30.076012 -833.79865
88.196297 -29.1998 -833.34698
88.590607 -28.705021 -833.83704
88.645493 -27.453033 -833.78314
88.724861 -25.945953 -833.58948
88.882126 -24.53005 -833.78845
88.833244 -23.167341 -833.76459
88.942032 -21.635075 -833.8559
89.011772 -20.388357 -833.58167
89.396484 -18.808233 -833.77954
89.872055 -18.64785 -833.34998
89.450951 -17.520517 -833.61896
89.823982 -17.51755 -833.75397
89.324425 -16.07877 -833.6994
89.194565 -14.741238 -833.65356
89.034508 -13.380719 -833.68396
88.852654 -11.859382 -833.60016
88.863045 -10.461341 -833.65137
88.723732 -9.1586437 -833.58771
88.023895 -7.3452997 -833.35205
88.533287 -7.5408163 -833.78113
88.198097 -5.7494798 -833.50299
88.375244 -6.3544631 -833.77905
88.044922 -4.7675281 -833.51483
88.298004 -5.0260587 -833.89471
87.923409 -3.4092841 -833.64954
88.486801 -3.74266 -834.39502
87.716103 -2.1613629 -833.65564
86.641701 -0.707654 -833.49695
87.165428 -0.61425108 -833.78186
86.744751 0.79419148 -833.74854
87.005363 0.60696733 -833.8172
86.511276 2.2391057 -833.43585
86.830002 1.42088 -833.06097
86.259712 3.4621365 -833.86456
86.017746 4.8818498 -833.61133
85.838219 6.421308 -833.67487
85.903702 7.7460566 -833.80725
85.835197 8.7914753 -833.65155
85.842468 10.488292 -833.85016
85.287102 12.55 -833.09998
85.548233 11.732087 -833.62341
85.108414 13.383525 -833.66113
84.750748 14.69145 -833.70868
84.286736 16.077787 -833.75812
83.773575 17.732424 -833.71948
84.012398 17.22505 -834.17651
83.545563 18.810101 -833.69537
83.184227 20.027525 -833.33197
82.460899 21.99645 -833.758
82.811531 21.270302 -833.13531
81.952545 22.747849 -833.93451
63.377949 -80.532303 -832.43347
64.968666 -79.220757 -832.36542
66.368263 -78.497429 -832.64996
66.565659 -77.706703 -832.10681
67.644478 -77.40435 -832.75287
67.962402 -76.458023 -832.20813
68.714928 -76.321999 -832.61896
68.279198 -75.370399 -831.62701
69.398132 -75.074883 -832.05939
70.307564 -74.522072 -832.67365
70.936111 -73.592316 -832.2323
71.937897 -73.202301 -832.841
72.190987 -72.210419 -832.42609
72.832649 -71.832947 -832.65906
72.595268 -70.958435 -831.80103
73.371315 -70.662834 -832.31183
73.94323 -69.619934 -832.20435
74.692711 -69.147057 -832.35773
75.185188 -68.226273 -831.83148
75.878784 -67.807663 -832.41083
76.287827 -66.459152 -832.19214
76.598183 -65.327888 -832.11945
77.262901 -64.930336 -832.44928
77.864677 -63.748177 -832.36414
78.167816 -62.5825 -832.11481
78.937988 -62.066364 -832.54407
79.342598 -60.770206 -832.16742
79.873795 -60.81805 -832.56897
79.538925 -59.599251 -831.82953
80.310806 -59.377735 -832.45233
80.775734 -57.987862 -832.33221
80.949219 -56.976498 -832.03888
81.582535 -56.639618 -832.63348
81.946739 -55.440716 -832.33514
82.207069 -54.409836 -831.84161
83.154999 -53.7369 -832.44147
83.464554 -52.661846 -832.13098
84.214203 -52.094433 -832.78998
83.818451 -51.067299 -832.11377
84.23629 -51.119572 -832.46124
83.870667 -50.034668 -831.95734
84.684189 -49.601269 -832.39789
85.095039 -48.230499 -832.30591
85.5028 -48.198097 -832.513
85.108299 -46.895786 -832.17804
85.468651 -46.900101 -832.55548
84.940239 -45.582603 -832.03906
85.478455 -45.489151 -832.59448
85.702202 -44.140011 -832.4361
85.905594 -42.652931 -832.15039
86.283478 -41.154316 -832.21069
86.511047 -39.996181 -831.99316
86.969452 -39.722099 -832.63904
86.681679 -38.731735 -832.13885
87.116348 -38.2915 -832.66174
86.711334 -37.232265 -831.92365
87.105682 -36.940067 -832.22729
87.246147 -35.754951 -832.29974
87.551437 -34.411388 -832.3736
87.764786 -32.900757 -832.37952
87.777863 -31.518642 -832.12378
88.337898 -31.1817 -832.98401
88.02887 -30.092484 -832.24634
88.382446 -30.232325 -832.72821
88.056198 -28.7983 -832.03375
88.35714 -28.783373 -832.42072
88.390221 -27.296091 -832.30853
87.961098 -25.999201 -831.97498
88.465446 -25.958998 -832.23523
88.1521 -24.0853 -832.64099
88.542465 -24.657558 -832.61823
88.563095 -23.166874 -832.1557
88.651779 -21.713083 -832.37329
88.812721 -20.239649 -832.31317
89.248764 -18.903677 -832.24689
89.025703 -17.586315 -832.25482
88.929108 -16.156208 -832.22284
88.809563 -14.6025 -832.33978
88.855553 -13.253263 -832.47845
88.696465 -12.010772 -832.3443
88.587227 -10.426636 -832.34576
88.513611 -9.0911493 -832.33234
87.997101 -7.6364398 -831.67902
88.381653 -7.8647137 -832.27905
88.088982 -6.2729583 -832.34259
88.291603 -6.5075836 -832.64667
87.960396 -4.9005384 -831.9989
88.276794 -5.1992302 -832.35474
87.956833 -3.4921947 -832.28992
88.414398 -3.4171801 -832.90503
87.384949 -2.0211878 -832.39624
86.737701 -0.542786 -831.61102
87.074486 -0.7664625 -832.25934
86.603203 0.85680395 -832.15363
86.893196 0.77095574 -832.71405
86.475563 2.0987651 -832.06586
86.218201 3.5217836 -832.47272
85.912643 4.9056816 -832.25592
85.899307 6.1716685 -832.30176
86.069962 7.7957277 -832.28973
86.067726 9.1707468 -832.289
85.914536 10.393406 -832.33527
85.306061 12.459233 -832.01434
85.563271 11.777775 -832.164
85.061462 13.291776 -832.21826
84.777542 14.733162 -832.27533
84.441093 16.11157 -832.29779
83.962852 17.472561 -832.64465
84.226654 17.299425 -832.1875
83.665794 18.862803 -832.07239
83.212181 20.215515 -832.13043
82.771927 21.830944 -832.33777
82.486549 22.793251 -832.37402
82.626602 22.4828 -831.70898
62.805801 -79.4767 -830.92603
65.445206 -77.729553 -831.32654
66.378647 -77.108597 -831.33051
65.364899 -76.810699 -830.31299
66.527596 -76.225471 -830.72351
67.755577 -75.715973 -831.17847
66.836945 -75.427101 -830.25403
67.920975 -75.04892 -830.81836
68.614502 -74.248802 -830.74902
68.568001 -73.9767 -830.258
69.429939 -73.60051 -830.80225
70.175835 -72.975098 -830.99365
69.985901 -72.642998 -830.505
70.819923 -72.232872 -830.98779
71.776833 -71.645264 -831.29834
71.236702 -71.198402 -830.74103
71.767593 -70.96286 -830.79944
72.533806 -69.942299 -830.61798
73.51619 -69.213066 -830.77588
74.385498 -68.643799 -831.25897
74.063026 -67.826378 -830.53796
74.881554 -67.807564 -831.05865
73.985199 -66.935699 -830.22601
75.14035 -66.67009 -830.90558
75.716469 -66.246231 -831.08569
75.291504 -65.324898 -830.40851
76.094498 -65.048462 -831.14569
76.619545 -63.81369 -830.81281
77.582596 -63.13195 -831.36377
77.528114 -62.349129 -830.76208
78.010101 -61.389019 -830.79224
78.695541 -60.921299 -831.15411
79.244263 -59.521442 -830.86481
79.632996 -58.476799 -830.8476
80.264977 -57.753937 -831.13837
79.760902 -57.272202 -830.31702
80.527695 -56.62822 -830.927
80.771889 -55.385826 -830.50293
81.389595 -55.227596 -831.10718
81.785973 -54.062935 -830.67755
82.669647 -53.449448 -831.10901
82.314003 -53.180401 -830.35699
82.943642 -52.342297 -831.02997
83.22419 -51.103024 -830.93152
83.618393 -49.666546 -830.61731
84.222404 -49.310898 -831.28296
84.461571 -48.197922 -830.87378
84.872383 -46.88205 -830.89117
84.754662 -45.546288 -830.89685
84.841919 -44.173672 -830.81763
85.518799 -43.644798 -831.59601
85.064041 -42.792797 -830.4884
85.631973 -42.743927 -831.36481
85.747002 -41.254902 -830.98407
86.004425 -39.75452 -830.89752
86.305275 -38.483189 -831.00415
86.900101 -38.34465 -831.35803
86.457283 -37.258572 -830.82806
86.806999 -36.4468 -830.76001
86.651947 -35.970375 -830.84045
87.045631 -35.462387 -831.07257
86.658234 -34.450069 -830.67804
87.135216 -34.1087 -830.89392
87.331573 -32.923225 -830.97717
87.505165 -31.560257 -830.81396
87.67305 -30.048016 -830.94409
87.778656 -28.666365 -830.8833
87.938698 -27.273409 -831.02777
88.266899 -27.0191 -831.50702
87.970062 -25.955376 -830.62341
88.280289 -25.8074 -831.18243
88.050644 -24.54636 -830.87677
88.238098 -24.783901 -830.96997
88.002625 -23.268339 -830.78162
88.325256 -23.005875 -830.99927
88.075752 -21.682775 -830.60999
88.470779 -21.586021 -831.07941
88.115501 -20.66605 -830.55701
88.737167 -20.187799 -830.89294
88.810097 -18.921137 -831.03571
88.676186 -17.534399 -830.86328
88.578674 -16.011475 -830.93451
88.585175 -14.731099 -830.85089
88.500313 -13.254254 -831.01617
88.1035 -11.2848 -830.59003
88.434296 -11.76669 -830.97327
88.005203 -10.7848 -830.37903
88.365662 -10.505856 -830.87689
88.0495 -9.1115761 -830.534
88.411613 -8.8751135 -830.84399
87.905075 -7.4990082 -830.76984
88.336876 -7.7238865 -830.90796
87.955338 -6.462018 -830.75616
88.255951 -6.7460403 -831.47253
87.792969 -4.7979445 -830.83228
87.583374 -3.5047522 -830.88306
86.768204 -1.49787 -830.263
87.19841 -2.15592 -831.01935
86.682999 -0.86788601 -830.59497
86.879959 -0.746539 -830.7666
86.643753 0.76023781 -830.83789
86.825104 0.485493 -831.28699
86.263123 2.1667686 -830.62006
86.113205 3.3873534 -830.75385
85.898018 4.8365273 -830.76831
86.043938 6.4634399 -830.97009
86.220863 7.6601486 -830.90753
86.10804 9.1600122 -830.80127
85.824852 10.576777 -830.97736
85.549828 11.795549 -830.78217
85.141121 13.248645 -830.78149
85.415703 13.2228 -831.33801
84.716034 14.765875 -830.80023
84.432152 16.16152 -830.84973
83.954002 18.011 -830.37299
84.102661 17.4993 -831.12958
83.744553 18.873367 -830.88525
83.260078 20.565649 -830.86914
82.920074 21.776363 -830.85358
82.271103 22.939199 -831.43799
63.48325 -77.055351 -829.34052
64.089401 -76.107597 -829.02698
64.973953 -76.699951 -829.90698
65.966148 -75.926498 -830.09149
65.509926 -75.241951 -829.03448
66.560249 -74.724258 -829.38116
67.750702 -74.265373 -829.84174
67.179001 -73.786797 -828.92603
67.956413 -73.500557 -829.45868
68.708557 -73.336548 -829.99304
68.575996 -72.257599 -828.83801
69.458344 -71.898094 -829.28381
70.275932 -71.680603 -829.93829
69.960602 -71.048897 -829.46802
70.878136 -70.70887 -829.60211
71.519501 -70.109901 -829.64001
71.110046 -69.895203 -828.89697
72.099121 -69.480797 -829.52136
73.09375 -68.959106 -829.89948
72.325996 -68.321266 -828.96136
73.386383 -67.977699 -829.7005
74.294098 -67.422897 -830.05402
73.631996 -66.616798 -829.25549
74.273369 -66.16507 -829.53271
74.121597 -65.327698 -829.27899
74.881401 -64.926971 -829.45276
75.230133 -63.98093 -829.16034
76.070839 -63.560829 -829.47205
76.789513 -62.450645 -829.51123
77.229836 -61.926666 -829.94196
76.885399 -61.5233 -829.23999
77.52636 -60.806675 -829.50195
78.495903 -60.527699 -830.133
78.048042 -59.566975 -829.38452
78.735664 -59.522068 -829.78961
78.240402 -58.268997 -829.05469
79.132622 -58.178696 -829.66833
79.482185 -56.709106 -829.05286
79.887421 -56.352051 -829.67188
80.402634 -55.245235 -829.59583
80.937378 -54.22155 -829.31042
81.741203 -53.639847 -829.86621
82.17408 -52.526356 -829.47906
82.686699 -51.886501 -830.02002
82.457451 -51.096066 -829.36896
82.729858 -50.85714 -829.4137
82.502136 -49.582897 -828.96405
82.799812 -49.550514 -829.35339
83.416954 -48.296295 -829.58643
84.290901 -47.678299 -830.05103
83.609238 -47.222557 -829.19464
84.384239 -46.632927 -829.70111
84.514809 -45.525833 -829.48969
83.789452 -43.859501 -829.26801
84.409416 -44.071682 -829.52789
84.709404 -42.755558 -829.56757
84.991684 -41.435936 -829.42731
85.588203 -41.447102 -829.36902
85.094894 -40.06855 -829.38849
85.650307 -39.934216 -829.75317
85.237854 -38.974998 -829.13403
85.773262 -38.347584 -829.50977
86.033073 -37.138943 -829.59662
86.248665 -35.726109 -829.59369
86.447327 -34.27253 -829.28125
86.819 -34.154053 -829.55151
86.685051 -32.861816 -829.54413
87.00486 -32.638542 -829.9248
86.583595 -31.648767 -829.39203
87.129265 -31.255211 -829.59711
86.542603 -30.722601 -828.98999
87.182693 -30.035818 -829.42761
87.279869 -28.590942 -829.39087
87.616074 -27.244699 -829.49689
87.46685 -26.058376 -829.39087
87.661064 -24.635998 -829.4881
87.785713 -23.111334 -829.38019
87.90818 -21.533827 -829.66193
88.217598 -22.113899 -830.14697
87.924515 -20.205616 -829.40344
88.121674 -18.826426 -829.28345
88.601845 -18.794489 -829.7865
88.122803 -17.771601 -828.88397
88.480194 -17.51598 -829.44305
88.135681 -16.0166 -829.14722
88.330467 -16.077463 -829.57721
88.051857 -14.9162 -829.40204
88.32135 -14.400174 -829.54297
88.042664 -13.41962 -829.21814
88.270218 -13.52406 -829.55243
87.969498 -11.7749 -829.3515
88.302635 -11.986633 -829.7829
87.888885 -10.508364 -829.43146
88.230804 -10.43276 -829.86047
87.96373 -9.0143538 -829.43787
88.2547 -9.6817102 -829.97998
87.81662 -7.7286887 -829.33612
87.701584 -6.2808199 -829.42694
87.584648 -4.983933 -829.4931
87.120316 -3.4541955 -829.5954
86.600929 -1.6439767 -829.55768
86.904938 -1.94691 -829.77197
86.615082 -0.65022236 -829.45953
86.375099 0.93557256 -829.7442
86.132668 2.0075288 -829.43378
85.889053 3.501482 -829.54413
85.953735 4.8503437 -829.4325
86.013397 6.1680899 -829.5816
86.109474 7.6359448 -829.44397
86.092583 9.0211515 -829.29883
85.787964 10.310992 -829.58398
85.184059 12.256841 -829.42755
85.546722 11.637839 -829.33203
85.052223 13.519175 -829.83453
84.866409 14.63019 -829.58185
84.430252 16.156586 -829.47955
83.972702 17.6943 -829.54401
84.174965 17.305634 -829.70929
83.742744 18.820244 -829.55298
84.069099 18.265699 -829.36902
83.499825 20.204525 -829.31586
84.139198 19.7952 -829.20099
82.996208 21.7173 -829.42285
61.748699 -76.371696 -827.64502
63.374069 -76.019371 -828.33966
63.914928 -75.161011 -827.9035
65.239296 -74.810478 -828.38452
65.391136 -73.688835 -827.74237
66.374382 -73.503555 -828.15753
67.490799 -73.107201 -828.53748
66.665504 -72.605537 -827.61865
67.877602 -71.432701 -827.56598
68.844749 -71.736549 -828.59052
69.372383 -70.744545 -828.00385
70.261497 -70.199242 -828.23456
69.9049 -69.590546 -827.5285
70.793472 -69.162247 -827.93103
71.741096 -68.926651 -828.46375
71.013504 -67.981323 -827.75623
71.873039 -67.775543 -828.25
71.262001 -66.880203 -827.40503
72.306915 -66.62925 -827.88641
73.167503 -66.256676 -828.64197
72.627602 -65.342598 -827.66101
73.435371 -65.035461 -827.93671
74.312202 -64.697701 -828.55664
73.641953 -64.281448 -827.50549
74.750076 -63.653072 -828.28107
75.023216 -62.604675 -827.79761
76.094688 -62.027397 -828.29132
76.274109 -60.936218 -828.09784
77.26265 -60.5728 -828.46204
77.335274 -59.397625 -828.28375
77.840065 -58.043186 -827.85638
78.948746 -57.606949 -828.66949
78.137329 -56.827801 -827.88977
78.789291 -56.591156 -828.18475
79.299248 -55.446739 -827.93768
79.950844 -55.141243 -828.43036
80.641312 -53.812492 -827.91711
81.013405 -52.457565 -827.65967
81.743217 -52.276512 -828.19073
81.930695 -51.191231 -828.1015
82.025986 -49.747414 -827.92419
82.438759 -48.374428 -827.97272
82.822762 -48.148434 -828.50635
82.599602 -47.562302 -828.43103
83.208107 -46.796036 -828.2442
83.492546 -45.708332 -828.01422
84.173157 -45.3666 -828.41772
83.839279 -44.069485 -827.99573
84.022301 -44.767502 -827.664
83.670631 -42.918526 -827.67999
84.257927 -42.709862 -828.4635
84.333511 -41.388977 -827.98065
84.784767 -39.950211 -828.1626
85.011429 -38.618343 -827.97687
85.416603 -38.242699 -828.633
85.116531 -37.087536 -827.65802
85.702141 -36.993431 -828.2785
85.740952 -35.643345 -828.11072
85.874573 -34.304886 -827.97852
86.175041 -33.039989 -828.1748
86.869003 -32.377499 -827.99799
86.347153 -31.525888 -827.9809
86.808197 -30.962299 -827.979
86.627998 -30.102098 -827.95227
86.997627 -29.962162 -828.42206
86.476501 -28.860434 -828.12207
87.051437 -28.48 -828.25653
86.583847 -27.38755 -827.75848
87.161484 -27.2181 -828.34692
86.718002 -25.7239 -827.51898
87.140938 -25.831429 -828.09467
87.187996 -24.533411 -828.05481
87.37101 -23.144136 -828.12634
87.37249 -21.811226 -828.04944
87.405388 -20.386072 -828.0116
87.843315 -18.876833 -828.13635
88.275101 -18.341101 -828.43201
87.929329 -17.445333 -828.17926
88.601097 -16.997999 -828.73199
87.791008 -16.039417 -827.92303
88.397202 -15.6317 -828.42499
87.778358 -14.73219 -828.04248
88.268356 -14.8826 -828.41748
87.858711 -13.132757 -828.18329
88.212303 -13.1508 -827.784
87.85955 -11.982574 -828.07892
87.666519 -10.512449 -827.9444
87.625854 -8.951067 -828.12848
87.525185 -7.8050652 -827.95056
87.303047 -6.287498 -828.19745
86.72905 -5.0056047 -827.66003
86.911644 -4.8258457 -828.27643
86.661018 -3.4378102 -828.09259
86.956123 -3.7756574 -828.10706
86.523705 -2.0892038 -828.1283
86.877075 -2.2375751 -828.72052
86.398766 -0.74045289 -827.98297
86.195114 0.60809982 -828.16711
85.937851 2.1286221 -828.01971
85.784973 3.4147682 -828.08429
85.886627 4.9563451 -827.99457
86.044197 6.3557649 -828.18164
86.033737 7.8698401 -828.13702
85.853333 9.25243 -828.02155
85.309402 10.9424 -827.67999
85.619751 10.498994 -828.15497
85.293777 12.032 -827.90021
85.569801 11.667925 -828.28247
85.059326 13.297899 -828.16504
85.418198 13.247 -828.36798
84.727539 14.904363 -828.08807
84.48069 16.04711 -827.80634
83.912727 18.084833 -828.22198
84.253845 17.298264 -828.15448
83.777206 18.891762 -827.94885
83.433243 20.410511 -828.17706
83.15345 21.477348 -828.01575
60.818897 -75.9039 -826.841
62.150578 -75.800102 -827.27979
61.084499 -75.168396 -826.24353
62.360176 -74.873512 -826.73621
63.304932 -74.638268 -827.09198
62.532551 -73.85025 -826.164
63.668659 -73.770187 -826.61371
64.818909 -73.380539 -826.91803
65.023254 -72.259499 -826.31049
66.3825 -72.019112 -826.98743
67.297951 -71.542496 -827.21301
66.899796 -71.0149 -826.27295
67.988693 -70.58416 -826.60577
69.071373 -70.300041 -827.29169
67.930298 -69.517097 -826.12201
69.284843 -69.160057 -826.72949
70.7882 -68.983704 -827.31897
69.352188 -68.120598 -826.35052
70.540443 -67.859329 -826.97473
70.70005 -66.67067 -826.47162
71.733475 -66.229378 -826.99231
71.396301 -65.748299 -826.26501
72.018501 -65.267815 -826.64362
72.8237 -64.6595 -826.758
72.4132 -64.007851 -826.1795
73.509392 -63.581409 -826.80798
73.750763 -62.437214 -826.26215
74.650269 -62.058968 -826.91431
75.022957 -61.081886 -826.63684
76.040154 -60.510101 -827.32849
75.447838 -59.851803 -826.32196
76.303001 -59.367371 -826.88898
77.067551 -59.1101 -827.28851
76.418633 -58.076344 -826.47888
77.188622 -57.983566 -826.76318
77.660141 -56.644367 -826.711
77.925087 -55.553246 -826.35999
78.977768 -54.850903 -826.56915
79.4505 -54.260937 -826.60999
80.361031 -53.588699 -826.87433
79.680496 -53.063801 -826.02502
80.505325 -52.455345 -826.72491
80.615318 -51.036983 -826.57953
81.232002 -50.6339 -827.34802
80.950562 -49.780785 -826.50256
81.614723 -49.392559 -827.14081
81.769913 -48.264938 -826.58655
82.292473 -46.965477 -826.52954
82.669601 -46.531433 -827.07062
82.514229 -45.428864 -826.39697
82.994186 -45.415218 -826.95642
82.327599 -44.342922 -826.22803
83.103256 -44.040352 -826.68085
83.353912 -42.676987 -826.74097
83.660492 -41.215057 -826.61145
84.042 -40.8302 -827.29797
83.802612 -40.14444 -826.40234
84.238647 -39.799744 -826.99353
83.947197 -38.757904 -826.45496
84.527817 -38.364887 -826.70313
83.802902 -37.561699 -826.43597
84.788406 -37.22271 -826.82532
85.053246 -35.75423 -826.74072
85.477898 -35.323399 -826.56299
85.070641 -34.511814 -826.48645
85.63604 -34.245934 -827.20001
85.141319 -32.991299 -826.24939
85.799614 -32.682114 -826.88562
84.806999 -31.819901 -826.20099
85.842178 -31.418671 -826.75177
86.048698 -30.059343 -826.72028
86.838097 -29.408899 -827.242
86.232147 -28.743793 -826.61096
86.8255 -28.9557 -827.06403
86.392746 -27.43811 -826.44904
86.974548 -27.017799 -827.271
86.541779 -25.928932 -826.59937
86.81823 -26.200924 -827.12427
86.534454 -24.449413 -826.59692
86.930199 -24.441341 -827.0506
86.596359 -22.971228 -826.36896
86.993103 -23.142956 -826.90375
86.680603 -21.471775 -826.45703
87.030464 -21.615168 -826.71027
86.688232 -20.097101 -826.74072
87.124748 -20.227039 -826.95313
86.567101 -18.967951 -826.25549
87.11541 -18.818184 -826.88208
86.734497 -17.7145 -826.00201
87.433998 -17.386509 -826.73877
87.38224 -16.093956 -826.65039
87.461266 -14.679542 -826.59442
86.793198 -12.7291 -826.10101
87.567757 -13.24001 -826.84497
87.404045 -11.899763 -826.73877
87.286911 -10.50029 -826.68231
87.269783 -9.2021427 -826.72534
86.6558 -7.2142801 -826.30951
87.211113 -7.7154803 -826.71326
86.641663 -6.3247552 -826.49609
87.046455 -6.4340172 -826.96545
86.522881 -4.7754145 -826.71124
86.822845 -4.93677 -826.95599
86.358307 -3.3983805 -826.57501
86.22625 -2.2212474 -826.9704
86.048225 -0.56121802 -826.60797
85.322601 1.20872 -826.01599
85.815308 0.73061627 -826.91602
85.812202 2.0264249 -826.64856
85.714699 3.4393651 -826.875
85.769867 4.8404236 -826.68323
85.941589 6.2696099 -826.6062
85.981834 7.64609 -826.78595
85.728241 9.0957985 -826.64099
85.225403 10.8655 -826.62799
85.593216 10.241241 -826.53357
85.106056 11.942963 -826.63159
85.470894 11.6698 -826.92035
84.896812 13.230277 -826.77496
84.662971 14.57036 -826.71863
84.302895 16.173828 -826.66833
83.913666 17.753033 -826.6416
84.226311 17.290565 -826.68146
83.769623 18.9785 -826.61688
84.183701 18.51195 -826.38647
83.450348 20.312126 -826.67725
82.990105 21.498375 -826.68396
63.247101 25.548532 -826.08936
61.277302 -74.517303 -825.89301
60.874401 -73.682404 -825.29498
62.2258 -72.94915 -825.15051
63.039902 -72.805397 -825.20697
62.738647 -72.36245 -824.90448
63.68766 -72.277779 -825.34619
64.868103 -71.574844 -825.33948
65.105606 -71.043625 -824.96967
66.362465 -70.697472 -825.55817
67.2033 -70.664101 -825.99701
65.789398 -69.4048 -824.64502
66.47979 -69.459496 -824.96307
67.613533 -69.401543 -825.54559
68.716354 -69.102997 -825.84705
67.035034 -68.38913 -824.84833
68.052498 -68.068398 -825.14984
68.85968 -67.65448 -825.54883
68.304047 -66.949554 -824.71655
69.331406 -66.594437 -825.2041
70.547653 -66.137405 -825.84601
69.766968 -65.50647 -824.73096
70.867073 -65.039795 -825.3576
71.721893 -64.749756 -825.70551
71.013901 -63.886673 -824.86951
72.191315 -63.587811 -825.49548
72.98745 -63.421101 -825.86951
72.437927 -62.618004 -825.10138
73.22599 -62.050671 -825.22046
73.667107 -60.967491 -825.30872
74.514961 -60.681202 -825.67145
73.727097 -59.9543 -824.72699
74.906799 -59.446167 -825.21045
75.707603 -59.104698 -825.896
75.414024 -58.340214 -825.22516
76.094765 -57.9832 -825.45099
76.447914 -56.786789 -825.41748
77.183395 -56.521366 -825.72565
76.709023 -55.551186 -824.99298
77.550346 -55.198101 -825.28235
79.150101 -54.6478 -825.94397
78.166695 -54.04845 -824.85858
78.799278 -53.744389 -825.39325
78.261444 -52.8582 -824.89899
79.201462 -52.661427 -825.35803
79.244202 -51.346634 -825.0437
80.031799 -50.961399 -825.72876
79.534546 -49.97995 -824.79401
80.337189 -49.781467 -825.41467
80.794228 -48.363098 -825.3269
81.305931 -48.026367 -825.4917
80.931473 -47.346951 -825.07672
81.564331 -46.633015 -825.53406
81.104698 -46.084 -824.81897
81.84877 -45.466976 -825.49091
81.081497 -44.473301 -824.76398
82.009125 -44.064915 -825.17944
82.231133 -42.782387 -825.18066
82.853851 -42.321152 -825.66528
82.380775 -41.249874 -824.79254
82.992844 -41.218208 -825.28827
83.413933 -39.830654 -825.36139
83.711723 -38.384048 -825.28308
83.739952 -37.329266 -825.16888
84.361221 -36.727478 -825.62903
83.864395 -35.91045 -824.96802
84.490211 -35.779213 -825.51483
84.581802 -34.274822 -825.38171
84.754745 -32.868275 -825.19305
84.911537 -31.491825 -825.15271
85.60775 -31.246399 -825.862
85.191605 -30.452398 -825.19354
85.558754 -29.92602 -825.55676
85.008598 -28.718525 -825.04651
85.675735 -28.704702 -825.26904
85.342964 -27.306665 -824.68036
85.839958 -27.339539 -825.27917
85.030098 -26.295601 -824.64203
86.115768 -25.778154 -825.42163
86.175751 -24.598425 -825.28107
86.252014 -23.226473 -825.36505
86.314095 -21.740816 -825.20642
86.986801 -21.7642 -825.90302
86.483185 -20.32415 -825.33026
86.864799 -20.289 -825.91699
86.388702 -18.809273 -825.1803
86.347824 -17.536289 -825.11792
86.940193 -17.573166 -825.76172
86.562622 -15.96306 -825.34198
86.817245 -16.156601 -825.56152
86.520699 -14.89675 -825.05664
86.927628 -14.737101 -825.62598
86.434502 -13.0974 -824.95313
87.086098 -13.152733 -825.55804
86.745804 -11.59585 -825.57599
87.115089 -11.905827 -825.34802
86.444229 -10.622818 -825.04346
87.117935 -10.590696 -825.36011
86.717133 -9.3327065 -825.05902
86.991982 -9.1998215 -825.43262
86.492607 -7.8389025 -825.02136
87.047241 -7.9013891 -825.68634
86.31208 -6.2967896 -825.32581
86.158943 -4.9753008 -825.31873
85.945038 -3.5296333 -825.20422
85.926643 -2.1282477 -825.44373
85.153099 -0.139259 -825.27698
85.77124 -0.8355208 -825.37585
85.334564 0.81910133 -825.18964
85.638153 0.56154436 -825.55249
85.267433 1.9854372 -825.08856
85.501007 2.1318333 -825.28851
85.358398 3.5732033 -824.91797
85.589203 3.4465175 -825.4679
85.769791 4.9125681 -825.25488
85.900589 6.4738603 -825.15607
85.376503 8.3445797 -825.03302
85.771965 7.660203 -825.48175
85.234703 9.3172922 -825.00623
85.550201 8.7706184 -825.46454
85.239082 10.526457 -825.51526
84.996796 11.832955 -825.14008
84.740921 13.292689 -825.15759
84.511894 14.643182 -825.17731
84.239052 16.027481 -825.15173
83.82238 17.64765 -825.33649
84.143799 17.203568 -825.56866
83.623039 18.896038 -825.25989
83.324257 20.401634 -825.40015
83.077431 21.108999 -825.67401
66.751953 31.524651 -824.79449
68.044601 33.004101 -824.92102
68.573502 33.678699 -824.62299
69.239304 36.842529 -824.66895
61.298714 -72.190781 -823.89111
62.400375 -71.59185 -823.82025
63.340103 -71.665001 -824.51147
62.531219 -70.905724 -823.42224
63.773975 -70.687561 -823.86462
64.794846 -70.310173 -824.30701
63.812675 -69.542885 -823.37341
64.964035 -69.122215 -823.86334
66.222534 -68.757759 -824.37061
65.336693 -68.193924 -823.47821
66.450806 -67.7826 -823.99115
67.509003 -67.618599 -824.46136
66.634369 -66.782829 -823.52362
67.903015 -66.474464 -824.07275
68.684364 -66.165237 -824.3017
68.280838 -65.247742 -823.49841
69.139824 -65.207298 -824.02161
70.087006 -64.912399 -824.39099
69.399826 -64.11055 -823.54852
70.31974 -63.728977 -823.96655
70.983643 -62.720242 -823.86316
71.97757 -62.189602 -824.15784
71.359398 -61.568901 -823.52399
72.171211 -61.015568 -823.64661
73.204971 -60.963062 -824.39563
72.458 -59.909 -823.83398
73.472893 -59.813374 -823.99683
74.647301 -59.238098 -824.21722
74.093201 -58.6236 -823.35449
74.996101 -58.102444 -823.95142
75.265984 -57.174129 -823.75189
75.990128 -56.441727 -824.10901
76.14341 -55.393963 -823.73846
76.575882 -54.208019 -823.5835
77.720398 -53.730305 -824.11493
77.894691 -52.574299 -823.76575
78.837799 -51.922699 -824.49597
78.168236 -51.628101 -823.65515
78.871017 -50.988762 -824.11145
79.17141 -49.697647 -823.80688
79.530823 -48.518223 -823.76965
80.287415 -48.144764 -824.02533
79.726852 -47.271099 -823.41199
80.373779 -46.799294 -823.74329
80.944077 -45.360111 -823.92596
81.411949 -45.2351 -823.65796
80.725189 -44.137589 -823.89069
81.577003 -43.664669 -824.11865
81.10495 -42.94165 -823.40698
81.767876 -42.567238 -824.02411
82.04538 -41.26112 -823.979
82.286476 -39.878853 -823.74426
82.8452 -39.7682 -824.26453
82.442596 -38.525425 -823.73523
83.020432 -38.523281 -824.15735
83.357498 -37.298145 -823.85956
83.662399 -36.082699 -824.02136
84.195877 -35.477798 -824.0658
84.213326 -34.308086 -824.03979
84.367325 -32.863441 -823.76837
83.9645 -31.380899 -823.40503
84.489342 -31.433079 -824.05353
84.735275 -30.086897 -823.97736
84.787315 -28.705202 -823.68933
85.035156 -27.227928 -823.79193
85.613197 -26.9384 -824.56799
85.120522 -25.887316 -823.77917
85.650055 -25.899723 -824.31671
85.156822 -24.566851 -823.51923
85.687119 -24.44438 -824.32062
85.368698 -23.290501 -823.34045
85.748192 -23.153301 -824.10669
85.264 -21.7423 -823.47101
85.93895 -21.711933 -823.93671
85.250702 -20.161133 -823.4494
85.886719 -20.35803 -823.99323
85.916206 -18.869585 -823.83325
85.945168 -17.515688 -823.88483
86.034775 -16.030252 -823.93646
86.139221 -14.615211 -823.95367
86.066475 -13.466112 -823.74414
86.130905 -12.007953 -823.94836
85.932716 -10.457299 -823.75769
86.079697 -8.9972534 -823.96924
86.834198 -8.7725697 -824.56097
85.919632 -7.6054339 -823.98627
85.888008 -6.2768946 -823.97876
85.753525 -4.9523325 -824.04254
85.33947 -3.3233869 -823.54425
85.687737 -3.6525998 -823.87134
85.196976 -1.99725 -823.83185
85.508995 -2.1859071 -824.02722
85.180542 -0.67579639 -823.6571
85.547493 -0.85134822 -823.98248
85.054703 0.59282893 -823.88544
85.406998 0.813353 -824.41998
85.101936 2.0719829 -823.93909
85.184364 3.2899635 -823.78302
85.430099 3.7737551 -823.92798
85.377449 4.9023499 -823.56152
85.626968 4.9127278 -824.09015
85.336937 6.1883302 -823.40601
85.552025 6.3101225 -823.9704
85.232346 7.8435621 -823.64276
85.571228 7.5819502 -824.29639
85.165688 9.09062 -823.84979
85.697098 8.98563 -823.83698
85.043861 10.298649 -823.91681
84.769302 11.810176 -823.8681
84.480896 13.353663 -823.92548
84.322083 14.990487 -823.85669
83.8284 16.2931 -823.84467
84.088455 16.256926 -823.92798
83.769569 17.461275 -823.94849
84.066002 16.9755 -824.46698
83.459824 18.950689 -823.85382
83.177704 20.244432 -824.03613
64.514503 29.376499 -824.26898
64.079399 30.094 -823.77002
65.285049 30.185757 -823.75873
66.013916 30.524015 -824.08057
65.472435 31.449667 -823.37238
66.571693 31.496403 -823.8678
65.147827 33.047073 -823.80701
66.830879 32.552277 -823.73224
67.613129 32.979248 -824.04529
65.668503 33.794498 -823.56299
66.587799 33.984528 -823.87579
67.982239 34.265457 -823.7417
69.215065 34.4809 -824.01202
66.932533 35.374233 -823.38934
68.070168 35.75219 -823.64941
69.24321 35.583614 -824.04681
67.784332 36.983631 -823.90875
68.8629 36.740749 -824.45154
67.380051 38.1553 -823.26355
58.414848 -71.628098 -821.95447
59.290352 -71.843506 -822.59326
60.638763 -71.733368 -823.02802
59.617683 -70.825485 -822.02863
61.038101 -70.594872 -822.51141
62.279449 -70.533699 -822.99799
60.033501 -69.903999 -821.87701
61.228802 -69.140739 -822.07062
62.463005 -69.213737 -822.48358
63.474918 -69.301033 -822.93573
62.608299 -68.30455 -822.06726
63.705803 -67.924706 -822.35046
65.03286 -67.668816 -823.01001
64.052902 -66.926651 -821.94897
65.119987 -66.567268 -822.23724
66.455116 -66.333755 -822.91254
66.623665 -65.174133 -822.2254
67.767143 -64.951836 -822.71173
68.834099 -64.431 -823.10303
67.858627 -64.193626 -822.15771
69.124489 -63.583042 -822.55994
69.596153 -62.512962 -822.08594
70.608505 -62.124233 -822.56976
71.006882 -61.012234 -822.26752
71.670143 -60.591179 -822.65442
71.941383 -59.609253 -822.44647
73.022705 -59.081875 -822.89874
72.682404 -58.7649 -822.33801
73.489075 -58.139301 -822.47552
74.2994 -58.160702 -822.95697
73.968666 -57.038818 -822.31836
74.675995 -56.53009 -822.54364
75.144135 -55.352417 -822.37714
75.764755 -54.841877 -822.70776
75.381035 -54.063717 -822.01483
76.212486 -53.611912 -822.71344
76.307556 -52.423443 -822.43622
77.460762 -52.231136 -823.01874
76.823853 -51.4389 -822.09094
77.793327 -50.874256 -822.65936
77.82225 -49.6432 -822.27051
78.582497 -49.348999 -822.73566
78.946724 -48.232998 -822.62891
79.169968 -46.867073 -822.42389
80.4188 -46.307899 -823.13397
79.238937 -45.529339 -822.1756
80.274498 -45.47261 -822.74371
79.600998 -43.971951 -821.86755
80.172585 -44.216988 -822.53955
80.464478 -42.775272 -822.4314
81.242401 -42.840698 -822.90601
80.633156 -41.396099 -822.17407
81.480812 -41.123276 -822.67358
81.077202 -39.993999 -821.94897
81.652466 -39.94751 -822.48511
82.1203 -38.670555 -822.51086
82.6091 -37.9748 -822.534
82.98391 -37.11351 -822.44769
83.608932 -35.849091 -822.49457
84.028 -35.228901 -822.91602
83.760727 -34.446152 -822.38904
84.122482 -34.258698 -822.77179
83.733101 -33.098984 -822.28424
84.261452 -32.893848 -822.6665
83.315865 -31.562433 -821.97833
84.213127 -31.393761 -822.48157
83.822838 -29.873232 -822.40527
84.297493 -30.034302 -822.57428
83.811295 -28.64505 -821.99152
84.300728 -28.583786 -822.58716
83.969299 -27.08 -822.52698
84.458275 -27.35079 -822.54938
83.881454 -26.16975 -822.14899
84.634346 -25.910173 -822.52655
84.638237 -24.466875 -822.48303
84.985542 -23.13146 -822.70514
84.980614 -21.827751 -822.5791
86.095901 -21.410299 -823.16998
85.002724 -20.252733 -822.22925
85.017876 -18.872299 -822.34595
85.685173 -18.968401 -823.01764
85.245529 -17.330114 -822.43445
85.54055 -17.7656 -822.84479
85.195549 -16.152067 -822.39087
85.59436 -16.215181 -822.68976
85.207214 -14.713243 -822.1051
85.546722 -14.7945 -822.92621
85.133675 -13.236366 -822.49847
85.758278 -13.203625 -822.89972
85.22142 -11.8017 -822.15625
85.661797 -11.704658 -822.83112
85.31266 -10.66118 -822.41815
85.669006 -10.621966 -822.68451
85.217171 -9.238533 -822.25238
85.599632 -9.1299534 -822.7392
85.300728 -7.5640569 -822.41412
85.5177 -7.8685675 -822.70929
85.179039 -6.3804712 -822.06628
85.493958 -6.3920279 -822.80847
85.097534 -4.8629727 -822.35779
85.563301 -4.759325 -823.01501
85.024078 -3.3413787 -822.47925
85.4506 -4.1111999 -822.71399
84.964241 -2.1613336 -822.45209
84.802315 -0.77328122 -822.43799
84.728233 0.57014889 -822.57104
84.852051 2.0217261 -822.63611
85.053329 3.422102 -822.45215
85.15255 4.8668818 -822.45056
85.486229 5.0988936 -822.93433
85.093803 6.3640671 -822.2251
85.411652 6.128355 -822.59448
85.057281 7.6474581 -822.57562
84.917915 9.1758327 -822.55731
84.719002 10.564371 -822.67572
83.999702 12.3443 -822.49799
84.51104 11.815935 -822.53125
83.938202 13.28 -822.02301
84.323738 13.346191 -822.59845
83.838234 14.7391 -822.26367
84.166862 14.692351 -822.5813
83.738533 16.069235 -822.43091
83.624313 17.427521 -822.44989
83.280945 18.777349 -822.43127
83.105255 19.934301 -822.48749
63.666298 30.415501 -822.60095
64.701996 30.455332 -822.95026
62.7421 31.2875 -822.07153
63.85569 31.375189 -822.37982
64.941437 31.744301 -822.8913
65.935799 31.418301 -823.034
64.060249 32.866718 -822.16669
64.659958 32.513603 -822.77655
65.372833 34.333504 -822.40253
66.687897 34.468822 -822.74609
67.457596 34.286449 -822.974
68.699501 34.854698 -823.112
65.479515 35.61512 -822.18298
66.541115 35.640373 -822.56757
67.437546 36.138451 -822.93799
67.671196 37.186077 -822.47412
67.116203 38.180401 -822.992
67.526947 38.250397 -822.25806
54.245899 -70.879799 -820.505
55.215698 -70.540298 -820.61597
56.670612 -70.297829 -820.91583
58.410378 -70.613701 -821.46143
59.183964 -70.59063 -821.68402
55.557301 -69.734299 -820.54498
56.788948 -69.382721 -820.54822
58.180458 -69.220551 -820.82874
59.502098 -69.356285 -821.33417
60.824326 -69.183945 -821.54523
58.0802 -68.261101 -820.44
59.527866 -68.192802 -820.64069
60.924702 -68.085861 -821.04578
62.329575 -67.648773 -821.51898
63.489201 -67.3274 -821.67902
61.373749 -67.105698 -820.69653
62.251743 -66.656914 -820.7951
63.440056 -66.384338 -821.15076
64.425499 -66.391449 -821.58002
63.868114 -65.335915 -820.72784
65.033134 -65.199638 -821.28741
66.180847 -64.514694 -821.22852
65.454544 -64.147247 -820.56396
66.539253 -63.769772 -820.80182
67.760567 -63.446037 -821.27417
68.723801 -63.196999 -821.79999
68.101547 -62.44125 -820.7182
69.061653 -62.374165 -821.44086
68.5634 -61.521 -820.65601
69.486473 -61.037598 -820.94958
70.409409 -60.717857 -821.35742
71.449997 -60.4608 -821.73602
69.558853 -60.014648 -820.4635
70.658363 -59.597618 -821.05109
71.614105 -59.210548 -821.29895
71.215134 -58.284119 -820.80762
72.162834 -58.06855 -821.20715
72.972099 -57.8255 -821.70001
72.337181 -56.854359 -820.82745
73.226326 -56.880501 -821.38641
73.560326 -55.29142 -820.85529
74.440247 -55.122585 -821.43945
73.986626 -53.825085 -820.6839
74.790268 -53.8326 -821.18927
75.062515 -52.719337 -821.19458
75.773949 -52.314598 -821.35754
75.159904 -51.225433 -820.73315
76.165512 -51.208733 -821.23926
76.690918 -50.041142 -820.85321
77.369659 -49.69698 -821.38025
76.877151 -48.494949 -820.71252
77.697975 -48.281208 -821.19165
78.571327 -48.030533 -821.75128
77.81913 -46.85487 -820.91479
78.655273 -46.724651 -821.177
78.216866 -45.55468 -820.80261
78.842934 -45.594543 -821.28406
78.398102 -43.5168 -820.651
78.88195 -44.173447 -821.00592
79.273155 -42.800545 -821.09875
80.09565 -42.475822 -821.47998
79.573456 -41.328499 -820.68781
80.234268 -41.23209 -821.33423
80.547897 -39.979454 -821.23218
81.240097 -39.964752 -821.50751
80.718765 -38.595264 -820.69739
81.733574 -38.404087 -821.37054
82.092445 -37.255043 -820.93762
82.827774 -36.835125 -821.24756
82.3694 -35.73085 -820.69348
82.861778 -35.756748 -821.14746
82.488258 -34.202038 -820.61121
83.225761 -34.205513 -821.27142
82.545151 -32.6348 -820.49353
83.302193 -33.042015 -821.38416
83.440414 -31.397161 -821.25555
84.2146 -31.2451 -821.73499
83.178108 -30.036083 -820.88843
83.280678 -28.687693 -820.9433
84.053299 -28.145 -821.56
82.583397 -27.9627 -820.62097
83.616676 -27.350277 -821.17224
84.089928 -27.197134 -821.45331
83.608498 -26.068262 -820.98975
84.197403 -25.807775 -821.29651
83.819214 -24.729137 -820.815
84.38105 -24.182875 -821.27917
83.711296 -23.210932 -820.63336
84.330132 -23.057476 -821.3078
83.7948 -21.523066 -820.60565
84.32238 -21.800056 -821.03644
83.922302 -20.601 -820.43701
84.537941 -20.238329 -820.86926
